ply
format ascii 1.0
comment Created by Open3D
element vertex 3115
property double x
property double y
property double z
end_header
97 161 145.628
98 161 144.937
99 161 144.194
100 161 143.434
101 161 142.638
102 161 141.805
103 161 140.975
104 161 140.136
105 161 139.116
106 161 137.773
107 161 135.85
109 161 -413.299
110 161 -413.299
111 161 -413.299
112 161 -413.299
113 161 -413.299
114 161 -413.299
115 161 -413.299
116 161 -413.299
117 161 -413.299
118 161 -413.299
119 161 -413.299
0 162 -413.299
1 162 -413.299
2 162 -413.299
3 162 -413.299
4 162 -413.299
5 162 -413.299
6 162 -413.299
7 162 -413.299
8 162 -413.299
9 162 -413.299
10 162 -413.299
11 162 -413.299
13 162 130.57
14 162 135.165
15 162 138.201
16 162 140.076
17 162 141.413
18 162 142.378
19 162 143.156
20 162 143.787
21 162 144.432
22 162 145.043
23 162 145.636
24 162 146.214
25 162 146.74
26 162 147.25
27 162 147.729
28 162 148.223
29 162 148.898
30 162 149.605
31 162 150.255
32 162 150.917
33 162 151.569
34 162 152.201
35 162 152.828
36 162 153.476
37 162 154.133
38 162 154.777
39 162 155.437
40 162 156.016
41 162 156.55
42 162 157.027
43 162 157.466
44 162 157.893
45 162 158.247
46 162 158.606
47 162 158.961
48 162 159.276
49 162 159.6
50 162 159.887
51 162 160.178
52 162 160.436
53 162 160.685
54 162 160.877
55 162 161.03
56 162 161.162
57 162 161.252
58 162 161.272
59 162 161.247
60 162 161.16
61 162 160.991
62 162 160.794
63 162 160.584
64 162 160.341
65 162 160.07
66 162 159.777
67 162 159.464
68 162 159.125
69 162 158.771
70 162 158.408
71 162 158.043
72 162 157.652
73 162 157.274
74 162 156.853
75 162 156.387
76 162 155.912
77 162 155.421
78 162 154.876
79 162 154.329
80 162 153.735
81 162 153.173
82 162 152.606
83 162 152.02
84 162 151.461
85 162 150.874
86 162 150.337
87 162 149.777
88 162 149.291
89 162 148.857
90 162 148.502
91 162 148.212
92 162 147.902
93 162 147.53
94 162 147.138
95 162 146.666
96 162 146.101
97 162 145.469
98 162 144.789
99 162 144.09
100 162 143.319
101 162 142.53
102 162 141.73
103 162 140.887
104 162 139.982
105 162 138.909
106 162 137.472
107 162 135.639
109 162 -413.299
110 162 -413.299
111 162 -413.299
112 162 -413.299
113 162 -413.299
114 162 -413.299
115 162 -413.299
116 162 -413.299
117 162 -413.299
118 162 -413.299
119 162 -413.299
0 163 -413.299
1 163 -413.299
2 163 -413.299
3 163 -413.299
4 163 -413.299
5 163 -413.299
6 163 -413.299
7 163 -413.299
8 163 -413.299
9 163 -413.299
10 163 -413.299
11 163 -413.299
14 163 133.749
15 163 137.155
16 163 139.241
17 163 140.7
18 163 141.816
19 163 142.732
20 163 143.391
21 163 144.055
22 163 144.655
23 163 145.275
24 163 145.861
25 163 146.444
26 163 146.99
27 163 147.535
28 163 148.014
29 163 148.649
30 163 149.315
31 163 149.975
32 163 150.603
33 163 151.239
34 163 151.902
35 163 152.573
36 163 153.22
37 163 153.892
38 163 154.569
39 163 155.244
40 163 155.868
41 163 156.416
42 163 156.913
43 163 157.392
44 163 157.811
45 163 158.183
46 163 158.522
47 163 158.869
48 163 159.224
49 163 159.533
50 163 159.865
51 163 160.196
52 163 160.494
53 163 160.755
54 163 160.971
55 163 161.169
56 163 161.351
57 163 161.441
58 163 161.485
59 163 161.457
60 163 161.347
61 163 161.161
62 163 160.964
63 163 160.717
64 163 160.447
65 163 160.155
66 163 159.842
67 163 159.505
68 163 159.134
69 163 158.755
70 163 158.361
71 163 157.955
72 163 157.513
73 163 157.098
74 163 156.623
75 163 156.127
76 163 155.635
77 163 155.088
78 163 154.521
79 163 153.953
80 163 153.348
81 163 152.756
82 163 152.193
83 163 151.595
84 163 151.016
85 163 150.46
86 163 149.889
87 163 149.345
88 163 148.853
89 163 148.409
90 163 148.076
91 163 147.811
92 163 147.553
93 163 147.225
94 163 146.836
95 163 146.392
96 163 145.871
97 163 145.245
98 163 144.577
99 163 143.903
100 163 143.162
101 163 142.385
102 163 141.582
103 163 140.741
104 163 139.824
105 163 138.607
106 163 136.826
107 163 133.571
108 163 -413.299
109 163 -413.299
110 163 -413.299
111 163 -413.299
112 163 -413.299
113 163 -413.299
114 163 -413.299
115 163 -413.299
116 163 -413.299
117 163 -413.299
118 163 -413.299
119 163 -413.299
0 164 -413.299
1 164 -413.299
2 164 -413.299
3 164 -413.299
4 164 -413.299
5 164 -413.299
6 164 -413.299
7 164 -413.299
8 164 -413.299
9 164 -413.299
10 164 -413.299
11 164 -413.299
14 164 132.243
15 164 135.882
16 164 138.244
17 164 139.928
18 164 141.245
19 164 142.252
20 164 143.034
21 164 143.63
22 164 144.266
23 164 144.902
24 164 145.513
25 164 146.109
26 164 146.687
27 164 147.262
28 164 147.8
29 164 148.373
30 164 149.017
31 164 149.652
32 164 150.297
33 164 150.92
34 164 151.586
35 164 152.279
36 164 152.941
37 164 153.634
38 164 154.339
39 164 155.052
40 164 155.692
41 164 156.268
42 164 156.8
43 164 157.283
44 164 157.741
45 164 158.158
46 164 158.492
47 164 158.831
48 164 159.149
49 164 159.52
50 164 159.856
51 164 160.206
52 164 160.526
53 164 160.827
54 164 161.101
55 164 161.352
56 164 161.562
57 164 161.693
58 164 161.728
59 164 161.704
60 164 161.601
61 164 161.401
62 164 161.173
63 164 160.921
64 164 160.635
65 164 160.317
66 164 159.96
67 164 159.579
68 164 159.185
69 164 158.772
70 164 158.316
71 164 157.851
72 164 157.381
73 164 156.903
74 164 156.387
75 164 155.873
76 164 155.31
77 164 154.742
78 164 154.141
79 164 153.529
80 164 152.936
81 164 152.324
82 164 151.75
83 164 151.159
84 164 150.557
85 164 149.994
86 164 149.42
87 164 148.882
88 164 148.409
89 164 147.975
90 164 147.658
91 164 147.369
92 164 147.148
93 164 146.853
94 164 146.466
95 164 146.053
96 164 145.553
97 164 144.991
98 164 144.324
99 164 143.643
100 164 142.918
101 164 142.16
102 164 141.377
103 164 140.548
104 164 139.626
105 164 138.425
106 164 136.305
108 164 -413.299
109 164 -413.299
110 164 -413.299
111 164 -413.299
112 164 -413.299
113 164 -413.299
114 164 -413.299
115 164 -413.299
116 164 -413.299
117 164 -413.299
118 164 -413.299
119 164 -413.299
0 165 -413.299
1 165 -413.299
2 165 -413.299
3 165 -413.299
4 165 -413.299
5 165 -413.299
6 165 -413.299
7 165 -413.299
8 165 -413.299
9 165 -413.299
10 165 -413.299
11 165 -413.299
12 165 -413.299
15 165 134.423
16 165 137.118
17 165 139.114
18 165 140.549
19 165 141.686
20 165 142.6
21 165 143.225
22 165 143.862
23 165 144.483
24 165 145.112
25 165 145.733
26 165 146.342
27 165 146.93
28 165 147.495
29 165 148.062
30 165 148.69
31 165 149.285
32 165 149.926
33 165 150.57
34 165 151.256
35 165 151.947
36 165 152.66
37 165 153.38
38 165 154.105
39 165 154.834
40 165 155.515
41 165 156.114
42 165 156.684
43 165 157.224
44 165 157.713
45 165 158.139
46 165 158.519
47 165 158.853
48 165 159.208
49 165 159.56
50 165 159.928
51 165 160.295
52 165 160.637
53 165 160.981
54 165 161.314
55 165 161.62
56 165 161.841
57 165 161.982
58 165 162.042
59 165 162.008
60 165 161.891
61 165 161.69
62 165 161.449
63 165 161.179
64 165 160.877
65 165 160.513
66 165 160.128
67 165 159.709
68 165 159.278
69 165 158.803
70 165 158.293
71 165 157.765
72 165 157.227
73 165 156.703
74 165 156.167
75 165 155.59
76 165 154.984
77 165 154.355
78 165 153.723
79 165 153.103
80 165 152.494
81 165 151.899
82 165 151.301
83 165 150.708
84 165 150.132
85 165 149.532
86 165 148.952
87 165 148.409
88 165 147.939
89 165 147.519
90 165 147.203
91 165 146.902
92 165 146.658
93 165 146.379
94 165 146.021
95 165 145.624
96 165 145.132
97 165 144.589
98 165 143.981
99 165 143.266
100 165 142.579
101 165 141.831
102 165 141.09
103 165 140.305
104 165 139.552
105 165 138.811
106 165 137.998
107 165 135.66
108 165 -413.299
109 165 -413.299
110 165 -413.299
111 165 -413.299
112 165 -413.299
113 165 -413.299
114 165 -413.299
115 165 -413.299
116 165 -413.299
117 165 -413.299
118 165 -413.299
119 165 -413.299
0 166 -413.299
1 166 -413.299
2 166 -413.299
3 166 -413.299
4 166 -413.299
5 166 -413.299
6 166 -413.299
7 166 -413.299
8 166 -413.299
9 166 -413.299
10 166 -413.299
11 166 -413.299
12 166 -413.299
13 166 -413.299
15 166 132.257
16 166 135.739
17 166 138.195
18 166 139.804
19 166 141.068
20 166 142.069
21 166 142.796
22 166 143.436
23 166 144.087
24 166 144.706
25 166 145.342
26 166 145.948
27 166 146.572
28 166 147.147
29 166 147.704
30 166 148.304
31 166 148.914
32 166 149.564
33 166 150.223
34 166 150.901
35 166 151.601
36 166 152.335
37 166 153.083
38 166 153.843
39 166 154.62
40 166 155.359
41 166 156.009
42 166 156.625
43 166 157.198
44 166 157.718
45 166 158.197
46 166 158.605
47 166 158.968
48 166 159.318
49 166 159.691
50 166 160.072
51 166 160.47
52 166 160.852
53 166 161.235
54 166 161.611
55 166 161.904
56 166 162.16
57 166 162.328
58 166 162.41
59 166 162.385
60 166 162.268
61 166 162.063
62 166 161.82
63 166 161.533
64 166 161.184
65 166 160.807
66 166 160.385
67 166 159.911
68 166 159.401
69 166 158.86
70 166 158.284
71 166 157.691
72 166 157.104
73 166 156.507
74 166 155.902
75 166 155.262
76 166 154.616
77 166 153.98
78 166 153.319
79 166 152.703
80 166 152.082
81 166 151.454
82 166 150.823
83 166 150.24
84 166 149.652
85 166 149.054
86 166 148.481
87 166 147.947
88 166 147.468
89 166 147.076
90 166 146.717
91 166 146.403
92 166 146.12
93 166 145.846
94 166 145.504
95 166 145.101
96 166 144.646
97 166 144.1
98 166 143.493
99 166 142.837
100 166 142.16
101 166 141.428
102 166 140.674
103 166 139.928
104 166 139.223
105 166 138.64
106 166 136.607
107 166 -413.299
108 166 -413.299
109 166 -413.299
110 166 -413.299
111 166 -413.299
112 166 -413.299
113 166 -413.299
114 166 -413.299
115 166 -413.299
116 166 -413.299
117 166 -413.299
118 166 -413.299
119 166 -413.299
0 167 -413.299
1 167 -413.299
2 167 -413.299
3 167 -413.299
4 167 -413.299
5 167 -413.299
6 167 -413.299
7 167 -413.299
8 167 -413.299
9 167 -413.299
10 167 -413.299
11 167 -413.299
12 167 -413.299
13 167 -413.299
14 167 -413.299
16 167 133.812
17 167 137.006
18 167 138.926
19 167 140.348
20 167 141.442
21 167 142.268
22 167 142.954
23 167 143.619
24 167 144.298
25 167 144.941
26 167 145.587
27 167 146.176
28 167 146.755
29 167 147.384
30 167 147.969
31 167 148.582
32 167 149.237
33 167 149.887
34 167 150.568
35 167 151.288
36 167 152.033
37 167 152.801
38 167 153.587
39 167 154.402
40 167 155.173
41 167 155.907
42 167 156.572
43 167 157.197
44 167 157.766
45 167 158.287
46 167 158.767
47 167 159.15
48 167 159.5
49 167 159.911
50 167 160.296
51 167 160.73
52 167 161.149
53 167 161.579
54 167 161.95
55 167 162.266
56 167 162.546
57 167 162.758
58 167 162.861
59 167 162.838
60 167 162.731
61 167 162.518
62 167 162.247
63 167 161.928
64 167 161.563
65 167 161.152
66 167 160.68
67 167 160.152
68 167 159.578
69 167 158.975
70 167 158.309
71 167 157.665
72 167 156.98
73 167 156.298
74 167 155.649
75 167 154.975
76 167 154.259
77 167 153.601
78 167 152.938
79 167 152.282
80 167 151.648
81 167 151.007
82 167 150.391
83 167 149.788
84 167 149.166
85 167 148.567
86 167 147.972
87 167 147.477
88 167 147
89 167 146.559
90 167 146.202
91 167 145.84
92 167 145.535
93 167 145.246
94 167 144.912
95 167 144.492
96 167 144.056
97 167 143.494
98 167 142.91
99 167 142.256
100 167 141.508
101 167 140.831
102 167 140.076
103 167 139.333
104 167 138.542
105 167 138.018
106 167 135.2
107 167 -413.299
108 167 -413.299
109 167 -413.299
110 167 -413.299
111 167 -413.299
112 167 -413.299
113 167 -413.299
114 167 -413.299
115 167 -413.299
116 167 -413.299
117 167 -413.299
118 167 -413.299
119 167 -413.299
0 168 -413.299
1 168 -413.299
2 168 -413.299
3 168 -413.299
4 168 -413.299
5 168 -413.299
6 168 -413.299
7 168 -413.299
8 168 -413.299
9 168 -413.299
10 168 -413.299
11 168 -413.299
12 168 -413.299
13 168 -413.299
14 168 -413.299
17 168 135.357
18 168 137.629
19 168 139.296
20 168 140.594
21 168 141.578
22 168 142.424
23 168 143.136
24 168 143.824
25 168 144.505
26 168 145.156
27 168 145.769
28 168 146.403
29 168 147.035
30 168 147.655
31 168 148.271
32 168 148.898
33 168 149.588
34 168 150.279
35 168 151.012
36 168 151.757
37 168 152.539
38 168 153.365
39 168 154.224
40 168 155.053
41 168 155.832
42 168 156.542
43 168 157.203
44 168 157.836
45 168 158.414
46 168 158.917
47 168 159.377
48 168 159.784
49 168 160.183
50 168 160.634
51 168 161.087
52 168 161.546
53 168 161.99
54 168 162.386
55 168 162.697
56 168 162.999
57 168 163.224
58 168 163.35
59 168 163.366
60 168 163.264
61 168 163.044
62 168 162.764
63 168 162.424
64 168 162.038
65 168 161.583
66 168 161.057
67 168 160.446
68 168 159.801
69 168 159.102
70 168 158.383
71 168 157.626
72 168 156.908
73 168 156.082
74 168 155.338
75 168 154.61
76 168 153.889
77 168 153.206
78 168 152.501
79 168 151.839
80 168 151.176
81 168 150.516
82 168 149.905
83 168 149.282
84 168 148.668
85 168 148.088
86 168 147.5
87 168 146.972
88 168 146.51
89 168 146.068
90 168 145.638
91 168 145.261
92 168 144.909
93 168 144.597
94 168 144.242
95 168 143.814
96 168 143.329
97 168 142.786
98 168 142.188
99 168 141.538
100 168 140.82
101 168 140.074
102 168 139.314
103 168 138.501
104 168 137.686
105 168 136.278
106 168 -413.299
107 168 -413.299
108 168 -413.299
109 168 -413.299
110 168 -413.299
111 168 -413.299
112 168 -413.299
113 168 -413.299
114 168 -413.299
115 168 -413.299
116 168 -413.299
117 168 -413.299
118 168 -413.299
119 168 -413.299
0 169 -413.299
1 169 -413.299
2 169 -413.299
3 169 -413.299
4 169 -413.299
5 169 -413.299
6 169 -413.299
7 169 -413.299
8 169 -413.299
9 169 -413.299
10 169 -413.299
11 169 -413.299
12 169 -413.299
13 169 -413.299
14 169 -413.299
15 169 -413.299
17 169 132.206
18 169 135.722
19 169 137.756
20 169 139.439
21 169 140.696
22 169 141.78
23 169 142.612
24 169 143.359
25 169 144.081
26 169 144.741
27 169 145.389
28 169 146.028
29 169 146.668
30 169 147.317
31 169 147.983
32 169 148.603
33 169 149.283
34 169 149.985
35 169 150.72
36 169 151.507
37 169 152.348
38 169 153.178
39 169 154.06
40 169 154.955
41 169 155.793
42 169 156.575
43 169 157.279
44 169 157.951
45 169 158.573
46 169 159.14
47 169 159.668
48 169 160.151
49 169 160.582
50 169 161.031
51 169 161.536
52 169 162.016
53 169 162.462
54 169 162.886
55 169 163.224
56 169 163.545
57 169 163.803
58 169 163.968
59 169 164.002
60 169 163.891
61 169 163.677
62 169 163.399
63 169 163.034
64 169 162.599
65 169 162.073
66 169 161.471
67 169 160.804
68 169 160.08
69 169 159.304
70 169 158.504
71 169 157.625
72 169 156.759
73 169 155.878
74 169 155.018
75 169 154.24
76 169 153.5
77 169 152.764
78 169 152.043
79 169 151.36
80 169 150.688
81 169 150.061
82 169 149.409
83 169 148.797
84 169 148.194
85 169 147.584
86 169 147.012
87 169 146.497
88 169 145.999
89 169 145.519
90 169 145.066
91 169 144.637
92 169 144.257
93 169 143.873
94 169 143.492
95 169 143.074
96 169 142.56
97 169 141.999
98 169 141.395
99 169 140.749
100 169 140.014
101 169 139.22
102 169 138.397
103 169 137.496
104 169 136.769
105 169 135.165
106 169 -413.299
107 169 -413.299
108 169 -413.299
109 169 -413.299
110 169 -413.299
111 169 -413.299
112 169 -413.299
113 169 -413.299
114 169 -413.299
115 169 -413.299
116 169 -413.299
117 169 -413.299
118 169 -413.299
119 169 -413.299
0 170 -413.299
1 170 -413.299
2 170 -413.299
3 170 -413.299
4 170 -413.299
5 170 -413.299
6 170 -413.299
7 170 -413.299
8 170 -413.299
9 170 -413.299
10 170 -413.299
11 170 -413.299
12 170 -413.299
13 170 -413.299
14 170 -413.299
15 170 -413.299
16 170 -413.299
18 170 132.48
19 170 135.63
20 170 137.917
21 170 139.605
22 170 141.051
23 170 142.109
24 170 142.881
25 170 143.652
26 170 144.336
27 170 144.998
28 170 145.662
29 170 146.329
30 170 146.976
31 170 147.659
32 170 148.363
33 170 149.022
34 170 149.738
35 170 150.482
36 170 151.275
37 170 152.113
38 170 152.987
39 170 153.918
40 170 154.871
41 170 155.762
42 170 156.592
43 170 157.377
44 170 158.111
45 170 158.805
46 170 159.418
47 170 160.004
48 170 160.549
49 170 161.032
50 170 161.533
51 170 162.066
52 170 162.583
53 170 163.064
54 170 163.503
55 170 163.883
56 170 164.217
57 170 164.498
58 170 164.66
59 170 164.725
60 170 164.641
61 170 164.432
62 170 164.141
63 170 163.744
64 170 163.261
65 170 162.686
66 170 162.01
67 170 161.293
68 170 160.467
69 170 159.558
70 170 158.643
71 170 157.653
72 170 156.633
73 170 155.64
74 170 154.697
75 170 153.843
76 170 153.055
77 170 152.308
78 170 151.57
79 170 150.873
80 170 150.19
81 170 149.553
82 170 148.904
83 170 148.275
84 170 147.66
85 170 147.084
86 170 146.529
87 170 145.974
88 170 145.468
89 170 144.973
90 170 144.465
91 170 144.001
92 170 143.551
93 170 143.103
94 170 142.696
95 170 142.226
96 170 141.706
97 170 141.074
98 170 140.448
99 170 139.809
100 170 139.087
101 170 138.279
102 170 137.4
103 170 136.327
104 170 134.966
106 170 -413.299
107 170 -413.299
108 170 -413.299
109 170 -413.299
110 170 -413.299
111 170 -413.299
112 170 -413.299
113 170 -413.299
114 170 -413.299
115 170 -413.299
116 170 -413.299
117 170 -413.299
118 170 -413.299
119 170 -413.299
0 171 -413.299
1 171 -413.299
2 171 -413.299
3 171 -413.299
4 171 -413.299
5 171 -413.299
6 171 -413.299
7 171 -413.299
8 171 -413.299
9 171 -413.299
10 171 -413.299
11 171 -413.299
12 171 -413.299
13 171 -413.299
14 171 -413.299
15 171 -413.299
16 171 -413.299
17 171 -413.299
20 171 135.783
21 171 138.356
22 171 140.273
23 171 141.665
24 171 142.533
25 171 143.195
26 171 143.935
27 171 144.62
28 171 145.296
29 171 145.953
30 171 146.65
31 171 147.356
32 171 148.055
33 171 148.777
34 171 149.522
35 171 150.253
36 171 151.07
37 171 151.928
38 171 152.828
39 171 153.783
40 171 154.775
41 171 155.709
42 171 156.602
43 171 157.445
44 171 158.263
45 171 159.013
46 171 159.721
47 171 160.386
48 171 160.989
49 171 161.584
50 171 162.123
51 171 162.71
52 171 163.277
53 171 163.776
54 171 164.254
55 171 164.636
56 171 164.996
57 171 165.294
58 171 165.482
59 171 165.565
60 171 165.506
61 171 165.286
62 171 164.972
63 171 164.562
64 171 164.031
65 171 163.406
66 171 162.67
67 171 161.838
68 171 160.867
69 171 159.856
70 171 158.746
71 171 157.629
72 171 156.482
73 171 155.388
74 171 154.39
75 171 153.464
76 171 152.559
77 171 151.784
78 171 151.021
79 171 150.305
80 171 149.653
81 171 148.971
82 171 148.352
83 171 147.735
84 171 147.12
85 171 146.534
86 171 145.984
87 171 145.433
88 171 144.905
89 171 144.413
90 171 143.889
91 171 143.366
92 171 142.842
93 171 142.33
94 171 141.835
95 171 141.3
96 171 140.743
97 171 140.092
98 171 139.441
99 171 138.739
100 171 138.006
101 171 137.205
102 171 136.321
103 171 135.545
104 171 133.799
105 171 -413.299
106 171 -413.299
107 171 -413.299
108 171 -413.299
109 171 -413.299
110 171 -413.299
111 171 -413.299
112 171 -413.299
113 171 -413.299
114 171 -413.299
115 171 -413.299
116 171 -413.299
117 171 -413.299
118 171 -413.299
119 171 -413.299
0 172 -413.299
1 172 -413.299
2 172 -413.299
3 172 -413.299
4 172 -413.299
5 172 -413.299
6 172 -413.299
7 172 -413.299
8 172 -413.299
9 172 -413.299
10 172 -413.299
11 172 -413.299
12 172 -413.299
13 172 -413.299
14 172 -413.299
15 172 -413.299
16 172 -413.299
17 172 -413.299
18 172 -413.299
21 172 136.698
22 172 139.429
23 172 141.173
24 172 142.222
25 172 142.905
26 172 143.56
27 172 144.212
28 172 144.909
29 172 145.617
30 172 146.306
31 172 147.023
32 172 147.757
33 172 148.518
34 172 149.268
35 172 150.048
36 172 150.869
37 172 151.757
38 172 152.669
39 172 153.667
40 172 154.688
41 172 155.683
42 172 156.61
43 172 157.519
44 172 158.395
45 172 159.231
46 172 160.025
47 172 160.781
48 172 161.498
49 172 162.163
50 172 162.804
51 172 163.439
52 172 164.042
53 172 164.623
54 172 165.137
55 172 165.553
56 172 165.929
57 172 166.241
58 172 166.441
59 172 166.543
60 172 166.478
61 172 166.266
62 172 165.971
63 172 165.532
64 172 164.931
65 172 164.229
66 172 163.374
67 172 162.425
68 172 161.339
69 172 160.18
70 172 158.883
71 172 157.58
72 172 156.35
73 172 155.135
74 172 154.04
75 172 153.022
76 172 152.074
77 172 151.205
78 172 150.437
79 172 149.68
80 172 148.989
81 172 148.334
82 172 147.697
83 172 147.106
84 172 146.52
85 172 145.936
86 172 145.389
87 172 144.853
88 172 144.324
89 172 143.8
90 172 143.267
91 172 142.713
92 172 142.141
93 172 141.513
94 172 140.896
95 172 140.275
96 172 139.631
97 172 138.947
98 172 138.29
99 172 137.548
100 172 136.817
101 172 136.019
102 172 135.175
103 172 134.317
104 172 131.889
105 172 -413.299
106 172 -413.299
107 172 -413.299
108 172 -413.299
109 172 -413.299
110 172 -413.299
111 172 -413.299
112 172 -413.299
113 172 -413.299
114 172 -413.299
115 172 -413.299
116 172 -413.299
117 172 -413.299
118 172 -413.299
119 172 -413.299
0 173 -413.299
1 173 -413.299
2 173 -413.299
3 173 -413.299
4 173 -413.299
5 173 -413.299
6 173 -413.299
7 173 -413.299
8 173 -413.299
9 173 -413.299
10 173 -413.299
11 173 -413.299
12 173 -413.299
13 173 -413.299
14 173 -413.299
15 173 -413.299
16 173 -413.299
17 173 -413.299
18 173 -413.299
21 173 134.458
22 173 138.396
23 173 140.569
24 173 141.82
25 173 142.637
26 173 143.218
27 173 143.858
28 173 144.562
29 173 145.254
30 173 145.961
31 173 146.695
32 173 147.485
33 173 148.238
34 173 149.03
35 173 149.854
36 173 150.679
37 173 151.56
38 173 152.498
39 173 153.516
40 173 154.569
41 173 155.607
42 173 156.614
43 173 157.589
44 173 158.512
45 173 159.433
46 173 160.311
47 173 161.15
48 173 161.952
49 173 162.68
50 173 163.416
51 173 164.187
52 173 164.907
53 173 165.54
54 173 166.141
55 173 166.638
56 173 167.028
57 173 167.363
58 173 167.568
59 173 167.675
60 173 167.644
61 173 167.45
62 173 167.117
63 173 166.619
64 173 165.969
65 173 165.143
66 173 164.209
67 173 163.071
68 173 161.851
69 173 160.515
70 173 159.056
71 173 157.632
72 173 156.277
73 173 154.953
74 173 153.739
75 173 152.623
76 173 151.55
77 173 150.648
78 173 149.787
79 173 149.004
80 173 148.294
81 173 147.647
82 173 147.024
83 173 146.423
84 173 145.862
85 173 145.312
86 173 144.769
87 173 144.277
88 173 143.761
89 173 143.223
90 173 142.66
91 173 142.069
92 173 141.414
93 173 140.715
94 173 139.971
95 173 139.242
96 173 138.48
97 173 137.71
98 173 136.946
99 173 136.216
100 173 135.48
101 173 134.728
102 173 134.022
103 173 132.56
104 173 -413.299
105 173 -413.299
106 173 -413.299
107 173 -413.299
108 173 -413.299
109 173 -413.299
110 173 -413.299
111 173 -413.299
112 173 -413.299
113 173 -413.299
114 173 -413.299
115 173 -413.299
116 173 -413.299
117 173 -413.299
118 173 -413.299
119 173 -413.299
0 174 -413.299
1 174 -413.299
2 174 -413.299
3 174 -413.299
4 174 -413.299
5 174 -413.299
6 174 -413.299
7 174 -413.299
8 174 -413.299
9 174 -413.299
10 174 -413.299
11 174 -413.299
12 174 -413.299
13 174 -413.299
14 174 -413.299
15 174 -413.299
16 174 -413.299
17 174 -413.299
18 174 -413.299
19 174 -413.299
22 174 137.041
23 174 139.604
24 174 141.127
25 174 142.14
26 174 142.838
27 174 143.473
28 174 144.144
29 174 144.899
30 174 145.627
31 174 146.367
32 174 147.159
33 174 147.94
34 174 148.781
35 174 149.607
36 174 150.466
37 174 151.376
38 174 152.312
39 174 153.344
40 174 154.454
41 174 155.538
42 174 156.584
43 174 157.625
44 174 158.63
45 174 159.62
46 174 160.562
47 174 161.477
48 174 162.328
49 174 163.163
50 174 163.996
51 174 164.89
52 174 165.742
53 174 166.482
54 174 167.168
55 174 167.737
56 174 168.202
57 174 168.567
58 174 168.834
59 174 168.975
60 174 168.935
61 174 168.73
62 174 168.391
63 174 167.843
64 174 167.122
65 174 166.237
66 174 165.118
67 174 163.842
68 174 162.416
69 174 160.879
70 174 159.276
71 174 157.7
72 174 156.206
73 174 154.786
74 174 153.438
75 174 152.198
76 174 151.051
77 174 150.051
78 174 149.11
79 174 148.296
80 174 147.544
81 174 146.886
82 174 146.278
83 174 145.697
84 174 145.151
85 174 144.63
86 174 144.132
87 174 143.645
88 174 143.18
89 174 142.703
90 174 142.12
91 174 141.502
92 174 140.782
93 174 139.96
94 174 139.073
95 174 138.149
96 174 137.226
97 174 136.292
98 174 135.442
99 174 134.695
100 174 134.047
101 174 133.336
102 174 132.52
103 174 130.113
104 174 -413.299
105 174 -413.299
106 174 -413.299
107 174 -413.299
108 174 -413.299
109 174 -413.299
110 174 -413.299
111 174 -413.299
112 174 -413.299
113 174 -413.299
114 174 -413.299
115 174 -413.299
116 174 -413.299
117 174 -413.299
118 174 -413.299
119 174 -413.299
0 175 -413.299
1 175 -413.299
2 175 -413.299
3 175 -413.299
4 175 -413.299
5 175 -413.299
6 175 -413.299
7 175 -413.299
8 175 -413.299
9 175 -413.299
10 175 -413.299
11 175 -413.299
12 175 -413.299
13 175 -413.299
14 175 -413.299
15 175 -413.299
16 175 -413.299
17 175 -413.299
18 175 -413.299
19 175 -413.299
20 175 -413.299
22 175 134.828
23 175 137.767
24 175 139.471
25 175 141.003
26 175 142.133
27 175 142.957
28 175 143.639
29 175 144.42
30 175 145.231
31 175 146.021
32 175 146.821
33 175 147.645
34 175 148.508
35 175 149.367
36 175 150.254
37 175 151.171
38 175 152.152
39 175 153.199
40 175 154.323
41 175 155.434
42 175 156.546
43 175 157.643
44 175 158.734
45 175 159.77
46 175 160.779
47 175 161.769
48 175 162.697
49 175 163.595
50 175 164.564
51 175 165.562
52 175 166.53
53 175 167.397
54 175 168.183
55 175 168.845
56 175 169.393
57 175 169.822
58 175 170.169
59 175 170.345
60 175 170.375
61 175 170.192
62 175 169.782
63 175 169.236
64 175 168.444
65 175 167.425
66 175 166.179
67 175 164.694
68 175 163.093
69 175 161.298
70 175 159.536
71 175 157.84
72 175 156.174
73 175 154.604
74 175 153.141
75 175 151.786
76 175 150.531
77 175 149.407
78 175 148.386
79 175 147.503
80 175 146.724
81 175 146.049
82 175 145.446
83 175 144.895
84 175 144.39
85 175 143.899
86 175 143.469
87 175 143.04
88 175 142.626
89 175 142.187
90 175 141.69
91 175 141.033
92 175 140.242
93 175 139.252
94 175 138.145
95 175 136.951
96 175 135.731
97 175 134.585
98 175 133.666
99 175 133.005
100 175 132.461
101 175 131.922
102 175 129.997
103 175 -413.299
104 175 -413.299
105 175 -413.299
106 175 -413.299
107 175 -413.299
108 175 -413.299
109 175 -413.299
110 175 -413.299
111 175 -413.299
112 175 -413.299
113 175 -413.299
114 175 -413.299
115 175 -413.299
116 175 -413.299
117 175 -413.299
118 175 -413.299
119 175 -413.299
0 176 -413.299
1 176 -413.299
2 176 -413.299
3 176 -413.299
4 176 -413.299
5 176 -413.299
6 176 -413.299
7 176 -413.299
8 176 -413.299
9 176 -413.299
10 176 -413.299
11 176 -413.299
12 176 -413.299
13 176 -413.299
14 176 -413.299
15 176 -413.299
16 176 -413.299
17 176 -413.299
18 176 -413.299
19 176 -413.299
20 176 -413.299
21 176 -413.299
22 176 -413.299
24 176 136.822
25 176 139.029
26 176 140.851
27 176 142.176
28 176 143.067
29 176 143.848
30 176 144.698
31 176 145.569
32 176 146.442
33 176 147.318
34 176 148.217
35 176 149.116
36 176 150.044
37 176 150.959
38 176 151.939
39 176 153.012
40 176 154.129
41 176 155.313
42 176 156.481
43 176 157.617
44 176 158.761
45 176 159.859
46 176 160.967
47 176 162.008
48 176 163.06
49 176 164.074
50 176 165.134
51 176 166.224
52 176 167.317
53 176 168.32
54 176 169.188
55 176 169.933
56 176 170.563
57 176 171.077
58 176 171.481
59 176 171.722
60 176 171.771
61 176 171.67
62 176 171.36
63 176 170.778
64 176 169.982
65 176 168.847
66 176 167.446
67 176 165.751
68 176 163.863
69 176 161.917
70 176 159.966
71 176 158.071
72 176 156.268
73 176 154.521
74 176 152.871
75 176 151.382
76 176 150.011
77 176 148.773
78 176 147.667
79 176 146.717
80 176 145.874
81 176 145.145
82 176 144.572
83 176 144.021
84 176 143.542
85 176 143.121
86 176 142.73
87 176 142.394
88 176 142.11
89 176 141.767
90 176 141.357
91 176 140.729
92 176 139.845
93 176 138.626
94 176 137.175
95 176 135.524
96 176 133.867
97 176 132.44
98 176 131.418
99 176 130.872
100 176 130.915
101 176 130.969
102 176 128.866
103 176 -413.299
104 176 -413.299
105 176 -413.299
106 176 -413.299
107 176 -413.299
108 176 -413.299
109 176 -413.299
110 176 -413.299
111 176 -413.299
112 176 -413.299
113 176 -413.299
114 176 -413.299
115 176 -413.299
116 176 -413.299
117 176 -413.299
118 176 -413.299
119 176 -413.299
0 177 -413.299
1 177 -413.299
2 177 -413.299
3 177 -413.299
4 177 -413.299
5 177 -413.299
6 177 -413.299
7 177 -413.299
8 177 -413.299
9 177 -413.299
10 177 -413.299
11 177 -413.299
12 177 -413.299
13 177 -413.299
14 177 -413.299
15 177 -413.299
16 177 -413.299
17 177 -413.299
18 177 -413.299
19 177 -413.299
20 177 -413.299
21 177 -413.299
22 177 -413.299
23 177 -413.299
25 177 136.463
26 177 138.9
27 177 140.817
28 177 142.259
29 177 143.311
30 177 144.095
31 177 145.026
32 177 145.955
33 177 146.899
34 177 147.846
35 177 148.82
36 177 149.772
37 177 150.764
38 177 151.777
39 177 152.796
40 177 153.96
41 177 155.163
42 177 156.34
43 177 157.517
44 177 158.732
45 177 159.929
46 177 161.122
47 177 162.271
48 177 163.421
49 177 164.56
50 177 165.709
51 177 166.895
52 177 168.092
53 177 169.209
54 177 170.192
55 177 171.005
56 177 171.76
57 177 172.356
58 177 172.783
59 177 173.032
60 177 173.156
61 177 173.127
62 177 172.963
63 177 172.455
64 177 171.624
65 177 170.476
66 177 168.932
67 177 166.917
68 177 164.83
69 177 162.691
70 177 160.542
71 177 158.418
72 177 156.397
73 177 154.415
74 177 152.604
75 177 150.946
76 177 149.442
77 177 148.073
78 177 146.904
79 177 145.877
80 177 144.979
81 177 144.227
82 177 143.579
83 177 143.063
84 177 142.659
85 177 142.255
86 177 142.007
87 177 141.811
88 177 141.626
89 177 141.385
90 177 141.094
91 177 140.509
92 177 139.615
93 177 138.147
94 177 136.182
95 177 133.79
96 177 131.365
97 177 129.512
98 177 128.383
99 177 128.102
100 177 129.098
101 177 128.333
102 177 -413.299
103 177 -413.299
104 177 -413.299
105 177 -413.299
106 177 -413.299
107 177 -413.299
108 177 -413.299
109 177 -413.299
110 177 -413.299
111 177 -413.299
112 177 -413.299
113 177 -413.299
114 177 -413.299
115 177 -413.299
116 177 -413.299
117 177 -413.299
118 177 -413.299
119 177 -413.299
0 178 -413.299
1 178 -413.299
2 178 -413.299
3 178 -413.299
4 178 -413.299
5 178 -413.299
6 178 -413.299
7 178 -413.299
8 178 -413.299
9 178 -413.299
10 178 -413.299
11 178 -413.299
12 178 -413.299
13 178 -413.299
14 178 -413.299
15 178 -413.299
16 178 -413.299
17 178 -413.299
18 178 -413.299
19 178 -413.299
20 178 -413.299
21 178 -413.299
22 178 -413.299
23 178 -413.299
24 178 -413.299
26 178 136.095
27 178 138.802
28 178 140.687
29 178 142.352
30 178 143.441
31 178 144.345
32 178 145.379
33 178 146.396
34 178 147.417
35 178 148.407
36 178 149.41
37 178 150.435
38 178 151.461
39 178 152.527
40 178 153.647
41 178 154.832
42 178 156.098
43 178 157.346
44 178 158.667
45 178 159.948
46 178 161.205
47 178 162.494
48 178 163.737
49 178 165.039
50 178 166.28
51 178 167.601
52 178 168.855
53 178 170.086
54 178 171.194
55 178 172.131
56 178 172.939
57 178 173.557
58 178 173.998
59 178 174.312
60 178 174.465
61 178 174.562
62 178 174.503
63 178 174.139
64 178 173.47
65 178 172.289
66 178 170.569
67 178 168.382
68 178 166.05
69 178 163.686
70 178 161.299
71 178 158.855
72 178 156.599
73 178 154.384
74 178 152.327
75 178 150.472
76 178 148.818
77 178 147.344
78 178 146.048
79 178 144.968
80 178 144.045
81 178 143.219
82 178 142.574
83 178 142.044
84 178 141.618
85 178 141.337
86 178 141.116
87 178 140.978
88 178 140.972
89 178 140.953
90 178 140.863
91 178 140.508
92 178 139.632
93 178 137.95
94 178 135.3
95 178 131.727
96 178 127.837
100 178 126.198
102 178 -413.299
103 178 -413.299
104 178 -413.299
105 178 -413.299
106 178 -413.299
107 178 -413.299
108 178 -413.299
109 178 -413.299
110 178 -413.299
111 178 -413.299
112 178 -413.299
113 178 -413.299
114 178 -413.299
115 178 -413.299
116 178 -413.299
117 178 -413.299
118 178 -413.299
119 178 -413.299
0 179 -413.299
1 179 -413.299
2 179 -413.299
3 179 -413.299
4 179 -413.299
5 179 -413.299
6 179 -413.299
7 179 -413.299
8 179 -413.299
9 179 -413.299
10 179 -413.299
11 179 -413.299
12 179 -413.299
13 179 -413.299
14 179 -413.299
15 179 -413.299
16 179 -413.299
17 179 -413.299
18 179 -413.299
19 179 -413.299
20 179 -413.299
21 179 -413.299
22 179 -413.299
23 179 -413.299
24 179 -413.299
25 179 -413.299
27 179 135.932
28 179 138.701
29 179 140.689
30 179 142.513
31 179 143.621
32 179 144.696
33 179 145.792
34 179 146.887
35 179 147.941
36 179 148.977
37 179 150.041
38 179 151.098
39 179 152.147
40 179 153.202
41 179 154.42
42 179 155.749
43 179 157.092
44 179 158.524
45 179 159.944
46 179 161.33
47 179 162.754
48 179 164.121
49 179 165.551
50 179 166.909
51 179 168.308
52 179 169.664
53 179 171.021
54 179 172.241
55 179 173.237
56 179 174.003
57 179 174.666
58 179 175.145
59 179 175.51
60 179 175.742
61 179 175.907
62 179 175.948
63 179 175.776
64 179 175.287
65 179 174.34
66 179 172.592
67 179 170.126
68 179 167.511
69 179 164.831
70 179 162.141
71 179 159.427
72 179 156.792
73 179 154.284
74 179 151.955
75 179 149.91
76 179 148.064
77 179 146.48
78 179 145.079
79 179 143.94
80 179 142.982
81 179 142.142
82 179 141.445
83 179 140.931
84 179 140.496
85 179 140.182
86 179 140
87 179 139.968
88 179 140.103
89 179 140.368
90 179 140.713
91 179 140.843
92 179 140.287
93 179 138.449
94 179 134.949
101 179 -413.299
102 179 -413.299
103 179 -413.299
104 179 -413.299
105 179 -413.299
106 179 -413.299
107 179 -413.299
108 179 -413.299
109 179 -413.299
110 179 -413.299
111 179 -413.299
112 179 -413.299
113 179 -413.299
114 179 -413.299
115 179 -413.299
116 179 -413.299
117 179 -413.299
118 179 -413.299
119 179 -413.299
0 180 -413.299
1 180 -413.299
2 180 -413.299
3 180 -413.299
4 180 -413.299
5 180 -413.299
6 180 -413.299
7 180 -413.299
8 180 -413.299
9 180 -413.299
10 180 -413.299
11 180 -413.299
12 180 -413.299
13 180 -413.299
14 180 -413.299
15 180 -413.299
16 180 -413.299
17 180 -413.299
18 180 -413.299
19 180 -413.299
20 180 -413.299
21 180 -413.299
22 180 -413.299
23 180 -413.299
24 180 -413.299
25 180 -413.299
26 180 -413.299
28 180 135.719
29 180 138.823
30 180 140.973
31 180 142.697
32 180 144.001
33 180 145.106
34 180 146.257
35 180 147.407
36 180 148.469
37 180 149.574
38 180 150.616
39 180 151.689
40 180 152.702
41 180 153.913
42 180 155.365
43 180 156.833
44 180 158.345
45 180 159.889
46 180 161.475
47 180 163.006
48 180 164.567
49 180 166.097
50 180 167.569
51 180 169.061
52 180 170.516
53 180 171.957
54 180 173.176
55 180 174.193
56 180 174.983
57 180 175.646
58 180 176.205
59 180 176.606
60 180 176.936
61 180 177.175
62 180 177.348
63 180 177.325
64 180 177.063
65 180 176.342
66 180 174.959
67 180 172.274
68 180 169.312
69 180 166.25
70 180 163.153
71 180 159.984
72 180 156.927
73 180 154.068
74 180 151.434
75 180 149.099
76 180 147.075
77 180 145.395
78 180 143.945
79 180 142.741
80 180 141.753
81 180 140.899
82 180 140.222
83 180 139.672
84 180 139.189
85 180 138.851
86 180 138.678
87 180 138.656
88 180 138.999
89 180 139.644
90 180 140.667
91 180 141.775
92 180 141.913
93 180 140.328
94 180 135.916
100 180 -413.299
101 180 -413.299
102 180 -413.299
103 180 -413.299
104 180 -413.299
105 180 -413.299
106 180 -413.299
107 180 -413.299
108 180 -413.299
109 180 -413.299
110 180 -413.299
111 180 -413.299
112 180 -413.299
113 180 -413.299
114 180 -413.299
115 180 -413.299
116 180 -413.299
117 180 -413.299
118 180 -413.299
119 180 -413.299
0 181 -413.299
1 181 -413.299
2 181 -413.299
3 181 -413.299
4 181 -413.299
5 181 -413.299
6 181 -413.299
7 181 -413.299
8 181 -413.299
9 181 -413.299
10 181 -413.299
11 181 -413.299
12 181 -413.299
13 181 -413.299
14 181 -413.299
15 181 -413.299
16 181 -413.299
17 181 -413.299
18 181 -413.299
19 181 -413.299
20 181 -413.299
21 181 -413.299
22 181 -413.299
23 181 -413.299
24 181 -413.299
25 181 -413.299
26 181 -413.299
27 181 -413.299
29 181 135.984
30 181 139.161
31 181 141.179
32 181 143.06
33 181 144.409
34 181 145.563
35 181 146.783
36 181 147.9
37 181 149
38 181 150.074
39 181 151.144
40 181 152.17
41 181 153.379
42 181 154.883
43 181 156.483
44 181 158.199
45 181 159.924
46 181 161.652
47 181 163.317
48 181 165.014
49 181 166.668
50 181 168.284
51 181 169.864
52 181 171.428
53 181 172.868
54 181 174.04
55 181 175.079
56 181 175.887
57 181 176.548
58 181 177.106
59 181 177.572
60 181 178.004
61 181 178.357
62 181 178.667
63 181 178.828
64 181 178.817
65 181 178.414
66 181 177.348
67 181 174.914
68 181 171.577
69 181 168.002
70 181 164.298
71 181 160.566
72 181 156.939
73 181 153.618
74 181 150.658
75 181 148.058
76 181 145.807
77 181 143.957
78 181 142.417
79 181 141.292
80 181 140.366
81 181 139.57
82 181 138.898
83 181 138.296
84 181 137.74
85 181 137.231
86 181 136.943
87 181 136.947
88 181 137.423
89 181 138.434
90 181 140.537
91 181 143.231
92 181 144.851
93 181 144.302
94 181 139.329
98 181 -413.299
99 181 -413.299
100 181 -413.299
101 181 -413.299
102 181 -413.299
103 181 -413.299
104 181 -413.299
105 181 -413.299
106 181 -413.299
107 181 -413.299
108 181 -413.299
109 181 -413.299
110 181 -413.299
111 181 -413.299
112 181 -413.299
113 181 -413.299
114 181 -413.299
115 181 -413.299
116 181 -413.299
117 181 -413.299
118 181 -413.299
119 181 -413.299
0 182 -413.299
1 182 -413.299
2 182 -413.299
3 182 -413.299
4 182 -413.299
5 182 -413.299
6 182 -413.299
7 182 -413.299
8 182 -413.299
9 182 -413.299
10 182 -413.299
11 182 -413.299
12 182 -413.299
13 182 -413.299
14 182 -413.299
15 182 -413.299
16 182 -413.299
17 182 -413.299
18 182 -413.299
19 182 -413.299
20 182 -413.299
21 182 -413.299
22 182 -413.299
23 182 -413.299
24 182 -413.299
25 182 -413.299
26 182 -413.299
27 182 -413.299
28 182 -413.299
30 182 136.491
31 182 139.389
32 182 141.418
33 182 143.427
34 182 144.881
35 182 146.043
36 182 147.256
37 182 148.4
38 182 149.447
39 182 150.523
40 182 151.538
41 182 152.692
42 182 154.253
43 182 156.02
44 182 157.918
45 182 159.882
46 182 161.822
47 182 163.63
48 182 165.45
49 182 167.211
50 182 168.982
51 182 170.639
52 182 172.21
53 182 173.593
54 182 174.8
55 182 175.814
56 182 176.62
57 182 177.304
58 182 177.893
59 182 178.435
60 182 178.897
61 182 179.374
62 182 179.856
63 182 180.244
64 182 180.54
65 182 180.482
66 182 179.849
67 182 177.884
68 182 174.084
69 182 169.901
70 182 165.428
71 182 160.841
72 182 156.629
73 182 152.822
74 182 149.462
75 182 146.446
76 182 144.006
77 182 142.171
78 182 140.63
79 182 139.572
80 182 138.757
81 182 138.02
82 182 137.335
83 182 136.564
84 182 135.909
85 182 135.244
86 182 134.667
87 182 134.63
88 182 134.989
89 182 135.635
90 182 138.731
91 182 144.779
94 182 138.872
97 182 -413.299
98 182 -413.299
99 182 -413.299
100 182 -413.299
101 182 -413.299
102 182 -413.299
103 182 -413.299
104 182 -413.299
105 182 -413.299
106 182 -413.299
107 182 -413.299
108 182 -413.299
109 182 -413.299
110 182 -413.299
111 182 -413.299
112 182 -413.299
113 182 -413.299
114 182 -413.299
115 182 -413.299
116 182 -413.299
117 182 -413.299
118 182 -413.299
119 182 -413.299
0 183 -413.299
1 183 -413.299
2 183 -413.299
3 183 -413.299
4 183 -413.299
5 183 -413.299
6 183 -413.299
7 183 -413.299
8 183 -413.299
9 183 -413.299
10 183 -413.299
11 183 -413.299
12 183 -413.299
13 183 -413.299
14 183 -413.299
15 183 -413.299
16 183 -413.299
17 183 -413.299
18 183 -413.299
19 183 -413.299
20 183 -413.299
21 183 -413.299
22 183 -413.299
23 183 -413.299
24 183 -413.299
25 183 -413.299
26 183 -413.299
27 183 -413.299
28 183 -413.299
29 183 -413.299
32 183 139.671
33 183 141.987
34 183 143.987
35 183 145.365
36 183 146.536
37 183 147.663
38 183 148.735
39 183 149.83
40 183 150.877
41 183 151.982
42 183 153.556
43 183 155.505
44 183 157.613
45 183 159.831
46 183 161.952
47 183 164.007
48 183 165.93
49 183 167.808
50 183 169.605
51 183 171.294
52 183 172.882
53 183 174.217
54 183 175.381
55 183 176.352
56 183 177.168
57 183 177.895
58 183 178.475
59 183 179.092
60 183 179.578
61 183 180.157
62 183 180.853
63 183 181.56
64 183 182.21
65 183 182.592
66 183 182.523
67 183 181.348
68 183 177.493
70 183 166.552
71 183 161.098
72 183 156.027
73 183 151.511
74 183 147.649
75 183 144.363
76 183 141.731
77 183 139.767
78 183 138.547
79 183 137.695
80 183 137.038
81 183 136.383
82 183 135.565
83 183 134.596
84 183 133.839
85 183 133.001
86 183 131.658
87 183 131.591
88 183 131.672
95 183 -413.299
96 183 -413.299
97 183 -413.299
98 183 -413.299
99 183 -413.299
100 183 -413.299
101 183 -413.299
102 183 -413.299
103 183 -413.299
104 183 -413.299
105 183 -413.299
106 183 -413.299
107 183 -413.299
108 183 -413.299
109 183 -413.299
110 183 -413.299
111 183 -413.299
112 183 -413.299
113 183 -413.299
114 183 -413.299
115 183 -413.299
116 183 -413.299
117 183 -413.299
118 183 -413.299
119 183 -413.299
0 184 -413.299
1 184 -413.299
2 184 -413.299
3 184 -413.299
4 184 -413.299
5 184 -413.299
6 184 -413.299
7 184 -413.299
8 184 -413.299
9 184 -413.299
10 184 -413.299
11 184 -413.299
12 184 -413.299
13 184 -413.299
14 184 -413.299
15 184 -413.299
16 184 -413.299
17 184 -413.299
18 184 -413.299
19 184 -413.299
20 184 -413.299
21 184 -413.299
22 184 -413.299
23 184 -413.299
24 184 -413.299
25 184 -413.299
26 184 -413.299
27 184 -413.299
28 184 -413.299
29 184 -413.299
30 184 -413.299
33 184 140.54
34 184 142.892
35 184 144.623
36 184 145.822
37 184 146.887
38 184 147.992
39 184 149.13
40 184 150.161
41 184 151.285
42 184 152.792
43 184 154.851
44 184 157.321
45 184 159.787
46 184 162.123
47 184 164.335
48 184 166.372
49 184 168.283
50 184 170.203
51 184 171.899
52 184 173.407
53 184 174.705
54 184 175.806
55 184 176.749
56 184 177.52
57 184 178.224
58 184 178.844
59 184 179.449
60 184 180.011
61 184 180.702
62 184 181.594
63 184 182.622
64 184 183.707
65 184 184.646
66 184 185.322
67 184 185.146
68 184 182.22
71 184 160.853
72 184 154.862
73 184 149.617
74 184 145.277
75 184 141.543
76 184 138.728
77 184 136.873
78 184 136.121
79 184 135.625
80 184 134.995
81 184 134.592
82 184 133.877
83 184 132.35
84 184 131.784
85 184 130.814
88 184 129.186
92 184 -413.299
93 184 -413.299
94 184 -413.299
95 184 -413.299
96 184 -413.299
97 184 -413.299
98 184 -413.299
99 184 -413.299
100 184 -413.299
101 184 -413.299
102 184 -413.299
103 184 -413.299
104 184 -413.299
105 184 -413.299
106 184 -413.299
107 184 -413.299
108 184 -413.299
109 184 -413.299
110 184 -413.299
111 184 -413.299
112 184 -413.299
113 184 -413.299
114 184 -413.299
115 184 -413.299
116 184 -413.299
117 184 -413.299
118 184 -413.299
119 184 -413.299
0 185 -413.299
1 185 -413.299
2 185 -413.299
3 185 -413.299
4 185 -413.299
5 185 -413.299
6 185 -413.299
7 185 -413.299
8 185 -413.299
9 185 -413.299
10 185 -413.299
11 185 -413.299
12 185 -413.299
13 185 -413.299
14 185 -413.299
15 185 -413.299
16 185 -413.299
17 185 -413.299
18 185 -413.299
19 185 -413.299
20 185 -413.299
21 185 -413.299
22 185 -413.299
23 185 -413.299
24 185 -413.299
25 185 -413.299
26 185 -413.299
27 185 -413.299
28 185 -413.299
29 185 -413.299
30 185 -413.299
31 185 -413.299
33 185 137.974
34 185 141.963
35 185 143.569
36 185 144.902
37 185 146.033
38 185 147.118
39 185 148.294
40 185 149.419
41 185 150.516
42 185 152.101
43 185 154.241
44 185 157.061
45 185 159.785
46 185 162.208
47 185 164.574
48 185 166.732
49 185 168.762
50 185 170.743
51 185 172.413
52 185 173.794
53 185 175.025
54 185 176.079
55 185 176.983
56 185 177.735
57 185 178.386
58 185 178.984
59 185 179.545
60 185 180.119
61 185 180.931
62 185 182.008
63 185 183.373
64 185 184.961
65 185 186.622
66 185 188.146
67 185 188.939
68 185 187.837
72 185 152.528
73 185 146.912
74 185 142.144
75 185 138.021
76 185 134.899
77 185 133.049
78 185 133.257
79 185 133.362
80 185 132.57
81 185 132.909
82 185 132.458
83 185 128.671
84 185 129.301
85 185 130.388
90 185 -413.299
91 185 -413.299
92 185 -413.299
93 185 -413.299
94 185 -413.299
95 185 -413.299
96 185 -413.299
97 185 -413.299
98 185 -413.299
99 185 -413.299
100 185 -413.299
101 185 -413.299
102 185 -413.299
103 185 -413.299
104 185 -413.299
105 185 -413.299
106 185 -413.299
107 185 -413.299
108 185 -413.299
109 185 -413.299
110 185 -413.299
111 185 -413.299
112 185 -413.299
113 185 -413.299
114 185 -413.299
115 185 -413.299
116 185 -413.299
117 185 -413.299
118 185 -413.299
119 185 -413.299
0 186 -413.299
1 186 -413.299
2 186 -413.299
3 186 -413.299
4 186 -413.299
5 186 -413.299
6 186 -413.299
7 186 -413.299
8 186 -413.299
9 186 -413.299
10 186 -413.299
11 186 -413.299
12 186 -413.299
13 186 -413.299
14 186 -413.299
15 186 -413.299
16 186 -413.299
17 186 -413.299
18 186 -413.299
19 186 -413.299
20 186 -413.299
21 186 -413.299
22 186 -413.299
23 186 -413.299
24 186 -413.299
25 186 -413.299
26 186 -413.299
27 186 -413.299
28 186 -413.299
29 186 -413.299
30 186 -413.299
31 186 -413.299
32 186 -413.299
34 186 140.139
35 186 142.213
36 186 143.602
37 186 145.027
38 186 146.245
39 186 147.48
40 186 148.66
41 186 149.799
42 186 151.446
43 186 153.796
44 186 156.771
45 186 159.693
46 186 162.299
47 186 164.733
48 186 167.012
49 186 169.167
50 186 171.205
51 186 172.781
52 186 174.066
53 186 175.197
54 186 176.221
55 186 177.032
56 186 177.707
57 186 178.274
58 186 178.753
59 186 179.235
60 186 179.801
61 186 180.666
62 186 181.954
63 186 183.645
64 186 185.796
65 186 188.395
66 186 191.066
73 186 143.985
74 186 138.757
75 186 133.921
78 186 130.102
79 186 131.928
80 186 128.57
81 186 131.494
82 186 134.101
87 186 -413.299
88 186 -413.299
89 186 -413.299
90 186 -413.299
91 186 -413.299
92 186 -413.299
93 186 -413.299
94 186 -413.299
95 186 -413.299
96 186 -413.299
97 186 -413.299
98 186 -413.299
99 186 -413.299
100 186 -413.299
101 186 -413.299
102 186 -413.299
103 186 -413.299
104 186 -413.299
105 186 -413.299
106 186 -413.299
107 186 -413.299
108 186 -413.299
109 186 -413.299
110 186 -413.299
111 186 -413.299
112 186 -413.299
113 186 -413.299
114 186 -413.299
115 186 -413.299
116 186 -413.299
117 186 -413.299
118 186 -413.299
119 186 -413.299
0 187 -413.299
1 187 -413.299
2 187 -413.299
3 187 -413.299
4 187 -413.299
5 187 -413.299
6 187 -413.299
7 187 -413.299
8 187 -413.299
9 187 -413.299
10 187 -413.299
11 187 -413.299
12 187 -413.299
13 187 -413.299
14 187 -413.299
15 187 -413.299
16 187 -413.299
17 187 -413.299
18 187 -413.299
19 187 -413.299
20 187 -413.299
21 187 -413.299
22 187 -413.299
23 187 -413.299
24 187 -413.299
25 187 -413.299
26 187 -413.299
27 187 -413.299
28 187 -413.299
29 187 -413.299
30 187 -413.299
31 187 -413.299
32 187 -413.299
33 187 -413.299
34 187 -413.299
36 187 141.222
37 187 143.592
38 187 145.438
39 187 146.621
40 187 147.882
41 187 149.056
42 187 150.824
43 187 153.367
44 187 156.383
45 187 159.512
46 187 162.341
47 187 164.941
48 187 167.245
49 187 169.522
50 187 171.553
51 187 173.006
52 187 174.273
53 187 175.295
54 187 176.203
55 187 176.915
56 187 177.448
57 187 177.858
58 187 178.175
59 187 178.507
60 187 179.009
61 187 179.866
62 187 181.255
63 187 183.209
64 187 185.988
65 187 189.579
66 187 193.788
72 187 146.656
74 187 135.594
79 187 134.674
83 187 134.951
84 187 -413.299
85 187 -413.299
86 187 -413.299
87 187 -413.299
88 187 -413.299
89 187 -413.299
90 187 -413.299
91 187 -413.299
92 187 -413.299
93 187 -413.299
94 187 -413.299
95 187 -413.299
96 187 -413.299
97 187 -413.299
98 187 -413.299
99 187 -413.299
100 187 -413.299
101 187 -413.299
102 187 -413.299
103 187 -413.299
104 187 -413.299
105 187 -413.299
106 187 -413.299
107 187 -413.299
108 187 -413.299
109 187 -413.299
110 187 -413.299
111 187 -413.299
112 187 -413.299
113 187 -413.299
114 187 -413.299
115 187 -413.299
116 187 -413.299
117 187 -413.299
118 187 -413.299
119 187 -413.299
0 188 -413.299
1 188 -413.299
2 188 -413.299
3 188 -413.299
4 188 -413.299
5 188 -413.299
6 188 -413.299
7 188 -413.299
8 188 -413.299
9 188 -413.299
10 188 -413.299
11 188 -413.299
12 188 -413.299
13 188 -413.299
14 188 -413.299
15 188 -413.299
16 188 -413.299
17 188 -413.299
18 188 -413.299
19 188 -413.299
20 188 -413.299
21 188 -413.299
22 188 -413.299
23 188 -413.299
24 188 -413.299
25 188 -413.299
26 188 -413.299
27 188 -413.299
28 188 -413.299
29 188 -413.299
30 188 -413.299
31 188 -413.299
32 188 -413.299
33 188 -413.299
34 188 -413.299
35 188 -413.299
37 188 140.572
38 188 144.392
39 188 145.867
40 188 146.93
41 188 148.24
42 188 150.253
43 188 152.852
44 188 155.713
45 188 159.183
46 188 162.2
47 188 164.997
48 188 167.579
49 188 169.908
50 188 171.746
51 188 173.158
52 188 174.323
53 188 175.277
54 188 176.05
55 188 176.588
56 188 176.892
57 188 177.102
58 188 177.279
59 188 177.414
60 188 177.651
61 188 178.389
62 188 179.691
63 188 181.815
64 188 185.155
65 188 189.814
82 188 -413.299
83 188 -413.299
84 188 -413.299
85 188 -413.299
86 188 -413.299
87 188 -413.299
88 188 -413.299
89 188 -413.299
90 188 -413.299
91 188 -413.299
92 188 -413.299
93 188 -413.299
94 188 -413.299
95 188 -413.299
96 188 -413.299
